0.00795702  0.00647008  0.00320061  -0.0223408
-0.0418707  0.0423444  -0.00335702  -0.0454853
0.0672733  -0.071095  -0.0738368  -0.0415698
0.00524211  -0.00882531  0.00580147  -0.0501574
-0.0562672  -0.0377623  0.0225646  -0.0297392
-0.0909454  -0.0393519  0.00417869  -0.045009
-0.0250628  -0.0617516  0.0266052  -0.0470711
0.0638214  0.152671  -0.0153722  -0.0567012
-0.157515  -0.150202  -0.036953  -0.0150735
0.0150461  0.0264972  0.0356857  -0.0495666
0.032763  0.0163863  0.0382037  -0.0479603
0.171463  0.173499  0.046454  -0.0519496
0.0206359  0.0198612  -0.00209317  -0.0306839
-0.00791347  -0.0211856  -0.0605575  -0.0460864
-0.0985113  0.00719789  0.0535222  -0.0418943
-0.0635548  -0.0011549  -0.0147675  -0.0693963
-0.0117557  -0.0101247  -0.0226837  -0.0312191
-0.0279502  0.0502556  -0.00358802  -0.0281608
0.0384606  -0.0365517  -0.00257125  -0.029361
0.0691208  0.0209039  0.0344657  -0.0661072
0.00506988  -0.00134463  0.0131866  -0.0345309
0.0223293  0.0251614  -0.0277995  -0.0505039
0.0173765  0.0121214  0.0315154  -0.0735569
-0.0580723  0.0686677  0.0112707  -0.0462776
0.0170974  -0.0503662  0.00256483  -0.050215
-0.00212151  0.0231505  0.0332563  -0.0540253
0.0852861  0.0434886  -0.0388041  -0.0712009
-0.0106493  -0.0773991  -0.0691436  -0.0729961
-0.0580616  -0.0374249  0.00910523  -0.051372
0.0206495  0.0425825  -0.0219534  -0.0508071
0.0222674  -0.0119459  0.0310011  -0.0773321
0.0739839  0.00644925  0.0130595  -0.0730321
0.020406  -0.0409325  0.0359875  -0.0488806
-0.00537238  -0.0571504  0.0534767  -0.0500091
-0.0376571  -0.0811531  -0.0196624  -0.0686944
-0.0288684  0.0432879  -0.0676322  -0.0740106
0.018195  0.034766  0.0267054  -0.0456972
0.0148591  -0.0162221  -0.00150877  -0.0342997
-0.00294941  -0.0037338  -0.0215824  -0.0473728
0.000746082  -0.0131197  0.094165  -0.0665624
0.010538  -0.00334341  0.0107167  -0.035928
0.0135676  -0.0103874  0.0327457  -0.0518818
-0.134264  -0.0964382  -0.101257  -0.0595816
-0.0954985  0.0349995  -0.0885804  -0.0421977
0.0106324  0.013945  -0.00873873  -0.0561124
-0.009807  -0.0128483  -0.0121108  -0.0560533
0.0199476  0.0583147  0.0272305  -0.0746563
-0.0799387  0.0772745  0.0572115  -0.0691526
-0.0435229  0.024171  -0.0044845  -0.0534542
-0.00184003  -0.0384826  -0.0120213  -0.0534657
-0.016023  -0.0612491  0.0192706  -0.0728801
0.00733752  -0.00192368  -0.00872496  -0.0776982
-0.00306995  0.0282177  -0.0580191  -0.0513343
-0.00387393  -0.0171788  -0.0395922  -0.0529963
0.051172  0.0540319  -0.065394  -0.0722601
0.03152  0.0459934  0.0123499  -0.0747997
-0.0270069  -0.0190749  -0.00660058  -0.049659
0.00658885  0.015648  -0.0048739  -0.0348019
-0.0359472  -0.0455537  0.00105079  -0.0513993
0.0550217  -0.0545789  0.0214299  -0.0681373
0.00350827  0.00583622  -0.0183942  -0.0334684
-0.0158739  0.0282661  -0.0164425  -0.0470465
0.0454209  -0.0630474  0.0310587  -0.0694662
-0.0244427  -0.0325165  -0.0034186  -0.0485626
-0.0188792  -0.00540614  -0.038289  -0.0498439
0.016612  -0.0184156  -0.0230784  -0.0527988
0.0520431  0.0028077  0.0678781  -0.0717235
-0.0362669  0.00998452  -0.0267352  -0.0749928
-0.00507018  -0.00222415  -0.0162298  -0.0558854
-0.107219  -0.045151  0.15626  -0.0392118
0.0252693  -0.020368  -0.0158859  -0.0782271
0.156394  -0.0053525  -0.118206  -0.0614019
0.0202664  0.00843344  0.0104216  -0.0536409
0.0255949  -0.00879829  0.0047898  -0.0522355
0.00736136  0.00455342  -0.119018  -0.0689979
0.00609299  0.0182185  0.0265497  -0.0779519
-0.0419259  0.0562633  0.0536628  -0.0469673
0.0137675  -0.00439186  -0.0173471  -0.0342946
-0.0028778  0.024177  0.0104975  -0.0524945
-0.06363  0.0361293  0.0971364  -0.0634891
-0.00327771  0.00548037  0.00624599  -0.0326585
0.00604003  0.000156613  -0.00257137  -0.0330066
-0.0105605  -0.0221751  0.0435309  -0.0677788
-0.0239858  -0.00328189  -0.0045943  -0.030459
0.0192179  0.0195956  0.0271549  -0.0476436
0.0188304  -0.0202484  0.000655426  -0.0318446
0.0196432  -0.0216275  -0.0285624  -0.0725605
-0.0133102  -0.0202857  -0.0018734  -0.050359
-0.0356108  0.0924996  -0.037379  -0.0439796
-0.00365786  0.00535072  -0.00291983  -0.0348245
0.039684  -0.0410407  -0.0170645  -0.0722059
-0.0890024  0.00952505  0.0918361  -0.0436534
-0.0118335  0.0134442  0.0126801  -0.052373
-0.000225172  -0.0110446  -0.0120876  -0.0346295
-0.0402382  -0.0644902  0.00172701  -0.068876
0.00349889  0.000753061  0.00947893  -0.0516314
-0.0101524  -0.00319167  0.00737679  -0.0497163
-0.118223  0.0340921  0.0900258  -0.00795991
0.042237  -0.0445134  -0.00172506  -0.0421624
0.122197  -0.0027557  -0.103926  -0.0362193
0.000533755  0.0112575  0.0180918  -0.0340819
-0.0455435  0.0260181  -0.096393  -0.0660422
-0.0286785  0.00857462  0.0093012  -0.0488153
-0.00867165  0.0222806  0.0191686  -0.0512974
0.00494853  -0.0450289  -0.0121901  -0.049766
0.0284497  0.0179351  -0.0144751  -0.0792386
0.0472163  -0.0178639  -0.0251569  -0.0526902
0.0990213  -0.0159301  0.0446956  -0.0705124
-0.0406924  -0.0262524  0.0263393  -0.0521702
-0.00676412  0.00137494  0.00900106  -0.0795689
-0.041956  -0.0934166  0.0713351  -0.0444966
0.0422037  0.132712  -0.0469811  -0.0666676
0.091346  0.000187459  -0.0898832  -0.0446983
-0.0133824  -0.00681244  0.00805627  -0.0781664
-0.0379347  -0.000209225  -0.00155838  -0.0535472
0.00800588  -0.0274827  0.00771916  -0.0800414
0.0224761  0.0175005  0.017937  -0.050216
-0.0616027  0.0339577  0.0224175  -0.0450697
0.0243469  -0.00630586  -0.0160924  -0.0314303
0.0632899  -0.0694973  -0.107336  -0.0614625
0.0637363  -0.121196  -0.0503801  -0.0425586
-0.0126684  0.0828776  0.0701991  -0.0719167
-0.00639032  -0.097827  0.0666343  -0.0699094
-0.0300043  0.1006  -0.0624219  -0.0478393
-0.0562335  0.0408029  0.0431909  -0.0762439
-0.00852754  -0.0207078  -0.0186956  -0.0819022
-0.0588296  -0.125245  0.138246  -0.0665308
-0.0725569  0.158723  -0.120486  -0.0645387
-0.00948344  -0.00194004  0.0128199  -0.0826773
-0.0653372  -0.000819328  0.0307489  -0.0799593
-0.0451584  -0.01425  -0.0196006  -0.0807072
0.159831  -0.12036  -0.0443814  -0.0659549
0.0270186  0.0351069  -0.038598  -0.0775148
0.0277923  -0.0128967  0.0458828  -0.0784653
0.0228426  0.0208896  0.0112789  -0.0833073
-0.0324934  0.00411206  0.0602582  -0.0795472
0.00185235  0.0101688  -0.0135961  -0.0750924
-0.0759282  -0.0936839  0.000484592  -0.0465052
0.0227327  0.0784441  0.0635028  -0.0476279
-0.0988729  -0.184923  0.0742355  -0.0577214
-0.0537195  -0.0764734  -0.11091  -0.0437387
0.132622  0.128408  0.0961534  -0.0567575
0.0793375  -0.0514379  0.0947122  -0.0642105
-0.00481909  0.00469395  0.0134718  -0.0527019
0.115263  -0.0305237  0.0758347  -0.0714347
0.00974643  0.0379917  0.0118799  -0.0811357
0.051618  -0.0246579  0.0232236  -0.0796008
-0.132899  0.0713011  0.0855318  -0.0663142
-0.138741  0.138268  0.0333758  -0.0669106
0.00411125  0.0464708  0.00195842  -0.0761942
-0.0583074  -0.00223529  -0.0751544  -0.0753807
-0.051405  -0.0774136  0.056687  -0.075176
0.0205558  -0.0229557  -0.027386  -0.079397
-0.00044067  0.00476232  -0.004475  -0.0822341
-0.0234477  0.125903  -0.149752  -0.0660464
0.0280546  0.0331763  0.0562237  -0.0786379
-0.0185096  0.0274051  -0.0354287  -0.0774556
0.0191179  0.0698157  -0.0129645  -0.0498596
0.0990096  0.0653086  -0.00771967  -0.0447819
-0.0178991  -0.0662489  0.026957  -0.0761056
-0.0685165  -0.0132493  -0.0310279  -0.0504741
0.0119985  0.0193032  0.012617  -0.0769996
0.044717  -0.078842  0.0802701  -0.0678549
0.0190268  0.0357003  -0.0405501  -0.0521532
0.0358373  -0.0165548  -0.0272369  -0.080216
0.0271118  0.0244525  0.0287099  -0.0794789
-0.0671524  0.0451721  -0.0927736  -0.0744897
-0.0221683  0.0162007  0.0492171  -0.0795973
0.0246362  -0.0200977  -0.00509317  -0.0819815
-0.0219947  -0.00631911  0.00382141  -0.0832768
-0.00451945  -0.06344  -0.0467319  -0.0794337
-0.0233321  -0.00112776  0.015892  -0.0826902
-0.0820189  -0.0632596  -0.0385732  -0.0729964
0.0807423  0.0315066  -0.0483435  -0.0726411
0.0587337  0.0185025  -0.0408055  -0.0742716
0.0167115  0.066209  0.0554149  -0.0764299
0.00581338  0.000544795  0.0455236  -0.0739763
-0.0105171  -0.0115476  -0.0273551  -0.0504161
-0.14549  -0.0437014  -0.0156346  -0.0380093
-0.0165354  0.00908057  -0.00149091  -0.0788037
0.0511446  0.0117629  0.00163703  -0.0485694
0.0364481  -0.00156678  0.0218221  -0.0500679
0.00247349  0.0199546  0.0144529  -0.0742464
-0.0109637  -8.47722e-05  0.015837  -0.0333689
-0.0180281  -0.00835081  -0.00127998  -0.077399
0.0741838  0.0021313  -0.0784988  -0.0456675
0.0195567  -0.0573215  -0.0168341  -0.0735573
0.00564757  -0.00255236  -0.0202284  -0.0523696
-0.0105646  -0.0185992  0.00542845  -0.0796753
0.00340431  0.0243662  -0.0363594  -0.054143
-0.0855137  0.0223463  -0.0624969  -0.0722735
0.00620056  0.0227976  0.0214674  -0.0561737
0.00744662  -0.0393295  0.0378821  -0.0763379
0.0453671  0.0762404  -0.0393969  -0.0467885
0.0157263  -0.0127731  0.0203427  -0.0767888
-0.00404808  -0.0012873  0.0198582  -0.0536386
-0.0378565  -0.0864394  -0.00431125  -0.0650791
-0.0468881  0.000176881  0.0489097  -0.0297827
-0.0280411  0.00378705  0.0479269  -0.0480336
0.0420865  0.00470352  -0.0859786  -0.041385
0.0262887  -0.00167615  -0.00301372  -0.0340652
-0.00236101  0.026222  0.00668705  -0.0758286
-0.032074  -0.0500374  -0.0422423  -0.0452604
-0.017001  -0.00237471  0.0210691  -0.0496465
-0.00296582  0.0244866  0.0224065  -0.0521109
-0.0193707  -0.00412755  -0.0102172  -0.0791429
0.0510078  0.0128743  -0.0435564  -0.0507805
-0.000856506  0.0692605  0.0618714  -0.071954
-0.100286  -0.0405411  0.0357586  -0.0471395
0.0466307  0.053255  0.0290416  -0.0747365
-0.0338594  -0.00950675  0.069468  -0.0510554
0.0653585  0.0763887  -0.0337754  -0.073461
-0.0147293  -0.150049  -0.158727  -0.0371536
-0.00125052  0.165827  0.168444  -0.0566808
-0.0303832  0.0163024  0.0420905  -0.0491853
0.0522806  -0.00645996  0.00192652  -0.0763978
0.0218261  0.0245671  0.0186595  -0.0463967
-0.0190778  -0.00404864  -0.0128811  -0.0505224
-0.0164424  -0.00972786  0.00884754  -0.0336781
-0.0395427  -0.03397  -0.0322678  -0.070272
0.0305708  -0.0616722  -0.0289751  -0.0507139
0.0198433  0.0767967  -0.00405373  -0.0735844
0.00311891  -0.0300126  0.0328614  -0.0748152
-0.0103066  0.0125438  0.00795614  -0.0558906
0.101366  -0.0859427  -0.00546917  -0.0718406
-0.0153546  0.0260217  -0.0136328  -0.080143
0.0286416  -0.0177293  -0.0118055  -0.0814551
-0.038213  0.0573584  0.0147271  -0.0771848
0.0190998  -0.0319896  -0.0494068  -0.0799768
0.0509252  0.0399157  0.0196809  -0.0794413
0.00450642  0.0274892  -0.0543692  -0.0798943
0.0166405  -0.0650475  0.0862595  -0.0761544
-0.00962301  -0.00688343  0.0316268  -0.0827179
0.0218606  -0.00314293  -0.0423481  -0.081874
0.00118499  -0.0276234  -0.0425381  -0.0799634
-0.12542  -0.0193834  -0.0826901  -0.0709892
-0.036502  -0.0367365  -0.0117386  -0.0754407
0.0171875  -0.0527443  0.0718398  -0.0494867
-0.00722568  0.0184177  0.0307323  -0.0535613
-0.0201484  0.0453805  -0.00261686  -0.0785743
0.0223418  -0.0336117  -0.00753765  -0.0554642
0.0939842  0.0347627  -0.102497  -0.0680661
-0.0369488  -0.0557435  0.056055  -0.0729132
0.00251778  0.0387588  -0.0145959  -0.0529024
0.052418  -0.046267  0.0214356  -0.0774029
0.0439313  -0.0625461  -0.105946  -0.0716812
0.0557395  0.0412121  -0.144182  -0.0655352
-0.0328408  -0.0279452  0.0292577  -0.0798159
-0.0608213  -0.0229141  0.0562366  -0.0794207
-0.0320255  0.0256497  -0.00859182  -0.0825208
0.0171362  -0.0190762  -0.00715387  -0.0846255
0.00935525  0.0588009  0.0251702  -0.0803775
0.0761413  0.0112458  0.0856151  -0.0760875
-0.0511503  -0.054432  -0.0447275  -0.0757054
-0.0287802  -0.057973  0.0316499  -0.0800693
0.010421  -0.0402076  -0.0724302  -0.0767546
0.115768  0.144963  -0.00228768  -0.0629941
0.0428469  -0.0733577  -0.0167314  -0.0496397
0.0111799  0.00570817  -0.0223425  -0.0540926
-0.0698222  0.014549  0.0564568  -0.0734707
0.014984  0.0126652  0.0194653  -0.0549504
0.0201275  -0.0549096  -0.0613224  -0.0724209
-0.0123211  0.0161813  -0.00892525  -0.0795816
-0.0157943  -0.050808  -0.0397614  -0.0488189
0.000968514  0.0215056  0.00464455  -0.082848
0.023792  0.00461124  -0.024874  -0.0810284
-0.0444942  -0.0572306  0.0248767  -0.0781517
0.0581526  -0.0647665  -0.0293807  -0.0727124
0.0907958  0.0948831  0.108494  -0.0689918
0.0762853  0.00973242  -0.0526668  -0.0744855
0.0676228  0.0102193  -0.0970031  -0.0741703
-0.011196  -0.0198473  0.00432272  -0.0809936
-0.0992349  -0.067835  0.0924427  -0.0694844
-0.0322002  -0.0240973  0.00460216  -0.0809603
0.0106282  0.0860745  -0.000534926  -0.0772654
0.0376784  0.0577491  0.0122261  -0.078397
0.0103242  0.0695713  0.0461649  -0.0740446
0.0978254  0.0908004  -0.017796  -0.045269
0.00771505  -0.0623572  0.0588297  -0.0509113
-0.0424851  0.100658  -0.0760495  -0.068714
0.0227561  -0.0154596  0.0207694  -0.0486106
-0.0148413  -0.0189006  -0.0144978  -0.0491545
0.0120171  0.0650289  0.0411742  -0.0674868
-0.00326905  -0.0198526  0.0178488  -0.0321739
-0.0809747  0.112892  0.0617098  -0.0643618
-0.0575667  -0.0211953  -0.0517147  -0.0484484
-0.0263673  -0.0280822  -0.028939  -0.0749806
-0.023352  -0.0174684  0.0211088  -0.053004
0.0252187  0.00564606  0.00346751  -0.0794673
-0.0194522  -0.0112716  -0.0234868  -0.0550688
0.0214561  -0.00819263  -0.0110302  -0.0785019
0.055088  0.00283425  0.0765737  -0.0480786
0.071459  -0.0109292  0.0770359  -0.0716784
-0.0658432  -0.0244493  0.00585513  -0.0476074
-0.0136765  0.0177556  -0.00304786  -0.0766558
0.0337582  -0.021299  -0.0259765  -0.0500398
0.0372761  -0.01325  -0.0737141  -0.0696688
0.030383  0.00670494  0.0299129  -0.0336962
-0.0166482  -0.0255122  -0.00205529  -0.050615
0.0211012  -0.00613706  0.0204017  -0.0505815
0.0276959  -0.011769  -0.0267229  -0.0323839
-0.019801  0.0892421  0.00696652  -0.0660564
0.000693672  -0.0387527  -0.0409104  -0.0462973
-0.008889  0.0143333  0.0159691  -0.0484904
0.0161727  0.00895217  0.00361169  -0.0535636
-0.0499709  0.00353602  -0.0443359  -0.0754782
-0.101135  0.0134807  -0.107897  -0.0430184
-0.0422673  0.0217727  0.00972451  -0.0745013
0.0338664  -0.00139412  -0.0520265  -0.0533736
-0.0141517  0.0497748  -0.0207025  -0.0764176
-0.00977595  0.00538646  0.0133024  -0.0546931
0.0732141  -0.107835  0.0761307  -0.0643475
0.00894981  -0.0292611  -0.024338  -0.050847
-0.0033999  0.0189634  -0.000596388  -0.0787994
-0.0225417  -0.023952  0.0225742  -0.0542269
0.00625458  0.0524537  -0.0209461  -0.0760947
-0.0110955  0.0191121  -0.0493199  -0.048336
0.0191089  -0.00687842  -0.00862892  -0.0524802
0.0286084  0.0132649  0.00925631  -0.0328472
-0.11723  -0.0666129  0.0316172  -0.0637002
0.0380807  -0.0233535  -0.0164174  -0.050044
-0.0133585  0.025944  0.0490549  -0.075316
0.0073889  -0.0233898  -0.0106179  -0.0772136
-0.0334447  -0.0207391  0.000746654  -0.0526095
0.0176159  -0.161517  -0.12802  -0.0624294
-0.0139318  0.134811  0.134003  -0.0669253
-0.000479767  0.0718012  -0.059009  -0.0754452
-0.0900511  -0.0997664  -0.0855343  -0.0679828
-0.0574308  0.0315489  0.00436432  -0.0808536
-0.182684  -0.0297105  0.150812  -0.063469
0.0360146  0.0128367  0.0582398  -0.077885
0.146305  -0.00699986  -0.186895  -0.0622546
0.0326403  -0.0233094  0.0286987  -0.0810285
0.0926327  0.0273234  0.0468166  -0.0726594
-0.0359102  -0.00182772  0.00647035  -0.077915
-0.0162257  0.0350691  -0.0414453  -0.0806306
0.0810093  0.0205856  0.0114928  -0.0727103
-0.0440808  -0.0420123  0.0109867  -0.0531788
-0.0317759  0.0331636  -0.0142829  -0.0503933
-0.0103793  -0.0502699  0.0342075  -0.075016
0.012485  0.0121535  -0.00106222  -0.0554996
0.0296209  0.0266609  -0.00281829  -0.0761327
-0.0391246  -0.0174434  0.0472696  -0.0749414
0.0192358  0.00243393  -0.00368648  -0.0545814
-0.0288946  -0.0354801  0.0100481  -0.0786416
-0.0686141  0.036564  -0.0491276  -0.0727944
0.0750857  -0.0256237  0.0701783  -0.0674298
0.00385544  0.0399841  0.0193504  -0.082056
-0.0450211  -0.026889  -0.0109976  -0.0794518
-0.0443613  0.0116911  0.00253674  -0.0829866
0.0601915  0.0289622  0.0288984  -0.0771159
0.0518371  -0.00249099  -0.0056549  -0.0797698
0.0731367  0.0338287  -0.0202723  -0.0790752
0.0871358  0.037117  -0.0519926  -0.0744435
-0.0728412  0.0575654  -0.0354842  -0.0741262
-0.0751593  0.0748051  0.0044912  -0.074731
0.00648881  -0.0623027  0.00149478  -0.0729612
0.00804169  0.00446485  -0.0177635  -0.0540064
0.0361873  0.0304307  -0.00391077  -0.052995
0.0228337  0.0192753  -0.000350655  -0.0775157
0.00224093  0.0132863  0.00734807  -0.0548188
0.00894516  -0.00760008  -0.00979131  -0.0784526
0.00253563  -0.0392631  -0.00314311  -0.0752717
0.0229198  -0.0107977  0.0116847  -0.0528863
0.000273315  -0.0124326  -0.0407436  -0.0806486
0.0650831  0.0510356  0.023205  -0.0773024
-0.00183237  -0.0247724  0.0389341  -0.0816663
-0.0817288  0.102674  0.0535688  -0.0688637
-0.0132178  0.0510855  0.0419266  -0.0799245
-0.11817  0.116778  -0.084128  -0.0652452
0.143956  -0.102337  -0.0517535  -0.0659332
-0.055982  0.0114972  -0.0468138  -0.077267
-0.0682667  -0.0717138  0.107919  -0.0716888
0.0300282  0.0280726  -0.05246  -0.0780935
0.00390126  0.0284942  -0.00803715  -0.0798554
0.053902  -0.0110693  0.0730523  -0.0739187
0.0305678  -0.0834445  0.0275908  -0.0722249
0.0233904  0.0233418  0.0138535  -0.0529767
-0.0209548  -0.0198845  -0.0237766  -0.0515163
-0.0244284  -0.00963577  0.00265844  -0.0771728
-0.0332178  0.00314656  0.018909  -0.0496304
0.0211053  0.0185177  -0.0505765  -0.0506866
-0.14057  -0.060189  -0.0681077  -0.0596194
-0.00653197  0.0014516  -0.00807557  -0.0326763
-0.0179204  -0.086713  0.0223956  -0.071641
-0.0591555  0.0179338  0.0988856  -0.0466877
-0.0682235  -0.0239829  -0.0655835  -0.0730623
0.0841174  0.00478256  -0.0736464  -0.0456232
-0.0162237  -0.0435937  0.0101117  -0.0742232
-0.010255  -0.0207071  -0.00874315  -0.053528
-0.00539283  0.0398929  -0.0372039  -0.0760045
0.0204262  0.0250168  0.0170485  -0.0532982
-0.0639907  -0.0380948  -0.0818044  -0.0708885
0.00890052  0.0316883  0.0444829  -0.0514354
0.0467438  -0.016315  0.0516075  -0.0725433
0.0278266  -0.01014  0.00298272  -0.0525444
0.0168106  -0.102268  -0.0983899  -0.0646981
0.0151484  0.0871522  0.0700376  -0.0267113
-0.00201935  -0.0924225  0.0700563  -0.0430542
-0.0422752  0.0645764  -0.130108  -0.037965
-0.0134367  0.0146204  0.00549746  -0.0313192
-0.0430884  -0.0112305  0.0116938  -0.0695864
0.00246076  0.0102552  0.00323113  -0.0322226
0.00569501  -0.00307267  -0.00441539  -0.0330306
0.0368497  -0.0412966  0.0324454  -0.0479424
-0.0297741  -0.0169034  0.0574452  -0.0710795
7.76085e-05  -0.00999628  -0.0366253  -0.0330095
0.0101559  -0.000849876  0.00817958  -0.0511299
0.0952862  0.0231248  0.0994444  -0.0399967
-0.0616978  0.0463752  -0.0153736  -0.0678833
0.0220461  -0.0482399  -0.0145869  -0.0314352
-0.008365  0.0303226  0.0218485  -0.050695
-0.00279879  -0.0212674  -0.0386384  -0.0500153
0.0745108  0.0334489  -0.0237752  -0.0692158
0.0521218  -0.00308743  -0.0417551  -0.0305512
-0.0130453  0.0193038  0.0224925  -0.0503918
-0.0778661  0.015865  0.0309009  -0.0424649
0.0472827  -0.028309  0.00256589  -0.0466444
0.0096637  0.00623572  0.0165281  -0.0209023
-0.0214415  0.0225301  0.00180464  -0.0485339
-0.011359  -0.0206872  -0.00299728  -0.0506016
0.00270071  0.00878626  0.018806  -0.0762083
0.0316248  0.032791  -0.0153039  -0.050651
-0.0120987  -0.00306752  0.00757265  -0.0329923
-0.016582  -0.00769257  -0.0439033  -0.0745078
0.0137945  0.0607357  0.0599201  -0.065551
0.00370044  0.024723  0.00112599  -0.0541105
0.0128789  -0.00889142  -0.0161677  -0.0543825
0.00568844  -0.0662443  0.0511194  -0.0729264
-0.0162292  -0.0189302  0.0743491  -0.0749574
0.00491161  0.0254171  0.000526947  -0.0548052
0.103834  -0.118028  -0.030892  -0.0421213
-0.0483393  -0.0255664  -0.0309867  -0.0743385
-0.107644  -0.123272  -0.178282  -0.0527543
0.0064001  -0.0176388  0.0403329  -0.0512932
0.010421  -0.00831742  -0.0480471  -0.0519698
0.0594681  0.0359058  0.00672747  -0.068884
-0.0148508  0.0129898  -0.017549  -0.0516881
-0.00349936  -0.0141253  -0.00533155  -0.0360354
0.118242  -0.0113352  0.0916506  -0.0421
0.0628191  0.015421  -0.0319916  -0.0479435
-0.0640802  0.0115385  -0.0471387  -0.0678218
0.00140817  -0.000650851  0.0173697  -0.0503883
0.00101422  -0.0204648  0.0170123  -0.0319895
0.0438613  0.103271  -0.0419772  -0.0690772
-0.0983025  -0.00726948  0.0075525  -0.0697509
0.0405227  -0.038194  -0.00156595  -0.0521249
0.0497633  -0.0309979  0.00504923  -0.0476511
-0.143766  0.126227  -0.0201034  -0.0621923
-0.00495647  -0.00718064  -0.0166492  -0.0787136
-0.012805  0.0245267  0.0219374  -0.0539432
0.00800648  -0.0119851  -0.00303311  -0.0551996
0.075616  -0.0417753  -0.0246558  -0.0724995
0.0130873  -0.0453446  -0.00978876  -0.0764714
0.029649  0.0595105  0.0215826  -0.0516427
-0.0131994  0.00729972  -0.0132505  -0.0547198
-0.0143065  0.107433  0.106443  -0.0635839
-0.0136987  0.00429887  -0.0231561  -0.0492875
-0.00237616  -0.0134891  0.00159602  -0.0355353
-0.00733819  -0.00167338  -0.0128911  -0.0525265
-0.0395789  0.012079  0.018126  -0.0506288
0.0293159  -0.0797851  -0.123295  -0.0610204
0.0160008  0.0343538  -0.0259803  -0.0495095
0.0989643  -0.107609  0.0046896  -0.0234587
0.0550085  -0.0947873  0.0380408  -0.0697291
0.0034096  0.00246358  -0.00765972  -0.0785208
0.00403661  0.0334926  0.0148784  -0.0538599
0.00537157  -0.0110679  -0.0213558  -0.0550396
-0.0295517  0.0418738  0.0254907  -0.0757738
0.0172537  -0.0019121  0.047088  -0.0741849
0.00886668  -0.00227905  0.000219991  -0.0546525
-0.00355599  -0.00324589  0.00571204  -0.0559053
-0.0423164  0.00361412  0.00181745  -0.0764036
-0.00276553  -0.0204445  0.0208492  -0.0765204
0.00928213  -0.00994841  -0.0234337  -0.0536157
-0.00837711  -0.00311954  -0.0323129  -0.0516359
-0.0341191  0.0249731  0.035645  -0.0719123
-0.0101606  0.0222222  -0.00903976  -0.049369
0.00338161  -0.0224806  -0.00540998  -0.0348746
0.000275242  -0.014991  -0.00751149  -0.0496984
-0.144125  0.0952137  -0.0220291  -0.0354829
0.0722896  0.0596872  0.0320632  -0.0418156
0.00555132  -0.139553  0.154807  -0.0313626
0.00895347  0.126561  -0.124256  -0.00753928
0.0581645  0.0935135  0.167115  -0.0587024
-0.0125017  0.0139084  -0.0152158  -0.0506215
-0.002919  -0.0409777  0.0373427  -0.0482005
-0.00958994  0.0350613  -0.0400671  -0.0325756
0.0358372  -0.0463255  0.0797964  -0.0673897
-0.0527032  -0.0133731  0.00449685  -0.049373
-0.0128346  -0.000629516  0.000301885  -0.0520559
0.0222098  -0.00126544  -0.0122884  -0.0342643
0.0281708  0.00300612  -0.0183198  -0.0715697
-0.019156  0.00414603  0.0149116  -0.0509276
-0.0109973  0.00991243  0.00973573  -0.0491201
0.00391503  -0.0160024  0.0175869  -0.0316395
-0.0787441  0.0174166  -0.0890456  -0.0612471
0.00858977  0.0237856  0.0389338  -0.0268084
0.0821375  -0.0362028  0.0929176  -0.0231149
-0.000813053  0.0104843  -0.0383228  -0.0305246
